ply
format ascii 1.0
comment Created by Open3D
element vertex 1963
property double x
property double y
property double z
end_header
12.1528 26.6403 308.606
-33.1629 -52.0516 322.447
-85.5442 57.9686 318.763
-29.5804 47.9045 326.813
102.333 -119.609 290.531
101.165 -99.78 310.928
147.623 115.981 298.783
32.8361 -71.4601 311.249
47.1891 -107.851 315.395
110.801 98.8481 309.585
70.0028 -49.739 332.499
13.8551 14.3548 301.612
85.9394 -111.789 298.737
-51.4293 26.1049 291.372
38.4991 -83.833 308.876
7.46394 -37.5057 321.693
-4.81831 -39.0938 317.695
21.84 28.8445 291.872
-58.6626 52.4521 320.182
34.0318 42.5495 303.006
153.807 -126.746 308.412
53.0082 -29.8226 297.661
-38.2308 -8.16572 288.884
55.6578 -65.6434 319.569
-63.463 4.41601 279.196
59.7745 14.614 297.572
128.604 117.465 282.904
46.4003 -106.321 315.722
51.365 73.0431 313.261
96.0704 107.774 303.641
-55.5803 52.0031 320.966
32.6051 -42.5956 299.527
53.7409 73.2103 313.728
93.8308 108.409 302.739
7.05894 19.5206 311.589
76.41 119.865 292.329
58.4145 -85.9953 307.927
114.792 99.2188 300.941
-66.9329 -30.2013 284.226
8.73916 10.9626 308.85
38.7078 53.8712 314.741
102.52 104.534 305.638
-30.4294 36.186 308.238
40.1666 -88.3535 309.375
68.5121 -120.21 298.017
35.2648 15.3683 290.202
37.3573 2.33077 288.699
36.4665 -26.194 292.394
-55.4253 -43.3586 298.891
-42.3178 50.8015 326.423
137.776 103.96 298.577
-54.1266 48.1163 313.126
-8.58661 -19.8112 303.289
140.889 111.364 292.831
127.948 100.942 296.227
-27.8458 -42.8048 311.051
144.086 116.281 292.96
4.84714 50.6933 339.745
96.8605 119.552 296.326
65.2087 14.2045 306.465
37.5851 -90.4716 316.516
14.2558 -42.0085 301.11
-83.9534 1.86381 270.949
90.8007 -103.868 304.642
39.1858 -42.666 301.138
71.6098 117.153 293.914
-29.8175 -27.4563 298.067
71.4876 100.075 302.288
15.5603 19.1999 294.239
-1.3518 -44.0925 325.737
131.79 105.517 291.64
9.18435 19.1145 312.244
78.6631 120.625 292.105
60.9965 -0.123682 296.883
103.13 120.105 288.568
-1.6273 -35.1938 315.366
78.2546 98.0475 305.077
143.994 -109.566 298.172
-56.34 26.1802 289.404
2.36614 67.9353 349.443
52.4902 -36.979 300.931
82.4684 76.3766 318.705
46.0591 -95.9004 305.3
137.198 110.449 290.355
-67.904 41.502 296.986
41.99 84.5998 304.515
56.3078 -68.7977 317.816
-51.6453 -7.99474 283.607
132.688 -100.608 313.28
50.6944 85.3408 305.936
30.2604 15.5335 289.069
148.157 118.083 298.277
-26.661 49.9088 335.114
22.988 34.573 295.102
136.616 -101.908 306.604
58.6692 93.2506 303.22
98.6421 111.767 299.651
65.1946 54.274 327.482
18.6161 -41.3821 295.448
-13.04 -51.7874 334.853
-39.5595 -51.9255 318.469
13.754 -49.2507 303.404
109.545 104.31 295.124
17.6738 -71.3449 331.815
15.1816 -5.05244 296.372
135.941 105.956 293.779
27.4788 67.8536 322.437
57.3393 -62.349 321.946
9.67212 9.56966 308.839
41.758 85.2166 305.536
-44.881 -38.4078 299.038
27.3136 51.4616 309.46
-55.8983 28.412 290.943
-10.1434 -32.9701 309.835
-87.1405 -6.008 272.821
21.216 33.5725 294.15
84.7837 -102.717 303.943
68.081 -10.0205 308.898
92.1445 93.5894 310.974
3.26696 -66.5895 348.481
60.3173 9.86289 297.144
109.411 110.195 289.164
28.3386 31.481 294.679
-88.2573 58.3418 318.029
5.88712 68.3304 335.211
-39.0607 -49.1491 313.953
59.3646 -37.0505 306.102
-13.2922 -22.3864 302.401
83.6156 99.9645 305.233
-56.165 46.4703 309.24
-60.96 -10.8356 280.315
38.9704 -27.4867 293.445
22.8815 -14.7848 286.218
46.3985 73.092 312.053
109.118 99.6113 309.765
-3.4721 25.6331 310.908
121.994 -109.732 286.181
1.87339 65.6315 351.593
76.0272 115.291 294.5
-35.6339 -5.51321 289.705
143.318 119.143 290.719
48.5842 -57.3124 316.06
-0.391067 69.949 361.154
58.0769 -95.0287 302.398
-19.6769 49.3233 338.695
39.4592 -53.6848 310.086
112.473 110.676 287.282
24.6129 15.3646 287.712
91.3534 108.142 302.306
-51.954 -0.693977 283.285
63.6103 -27.1882 307.379
133.985 99.0084 312.685
-48.8307 35.6319 299.56
-52.5542 27.9841 292.045
-20.0601 -10.4284 296.313
12.0757 41.3989 308.619
54.3067 58.7155 322.308
111.565 -104.933 296.121
-48.5395 51.5488 324.386
32.7409 47.9119 307.208
130.335 110.564 286.717
78.1523 -95.1364 306.982
14.2024 -53.7372 304.215
-34.5461 -24.9501 294.912
-33.1643 -32.8244 299.896
24.487 41.1639 299.786
52.7727 -33.1189 299.042
36.7043 68.3027 312.541
13.0275 -22.7007 305.933
-37.7113 38.4407 307.366
73.0518 -56.2196 329.815
75.7394 112.744 295.916
87.7218 -108.534 301.113
0.0450751 69.8527 359.296
68.4305 -57.3968 327.503
137.422 100.692 311.165
48.1908 99.9278 308.02
41.482 -58.4886 315.658
88.0478 120.446 294.351
27.2167 15.4578 288.341
144.817 111.252 298.258
-82.5642 24.6706 277.89
114.385 97.7099 313.12
64.4729 12.2487 304.624
111.898 98.4765 312.717
30.4751 -41.0012 298.031
47.0622 58.9 320.48
16.1646 -2.63162 292.13
-66.1053 33.1793 290.053
-81.96 55.8287 314.212
-83.7527 58.2801 321.782
66.1986 101.196 300.379
133.167 113.931 285.847
-65.1628 47.432 306.185
31.5237 72.6832 316.592
100.449 -119.843 292.828
61.5816 14.7497 300.613
148.099 120.77 296.71
-6.16879 -43.6289 322.617
116.78 105.079 290.546
-45.5639 33.895 299.403
84.1515 76.7894 319.186
23.3555 -0.394901 285.295
60.1373 -36.4526 307.097
-49.7357 -54.9103 318.676
60.1558 -3.33186 295.47
32.6768 -41.1639 298.654
32.6209 2.3947 287.595
143.206 107.303 301.224
127.047 96.947 311.098
41.4631 93.0012 313.389
-44.1549 -44.4956 305.3
54.1412 9.72009 293.465
34.4622 -86.5506 319.543
130.778 97.9962 307.331
126.783 96.9761 308.344
22.5687 39.3129 298.004
47.3842 -99.6052 306.672
123.746 101.947 293.654
-85.8705 54.654 308.671
-18.8108 36.5443 313.855
90.388 -116.354 297.012
2.86199 58.4998 347.531
-60.0486 -30.2465 287.099
-75.1825 31.3076 284.873
85.662 -99.1403 306.305
66.162 78.3567 313.679
126.226 101.998 294.006
-83.6223 54.414 309.463
-20.7505 -48.31 322.291
128.511 -99.3443 309.745
121.948 114.11 283.462
101.749 111.234 295.114
55.1501 -51.6006 312.537
36.149 -34.5096 295.773
-81.0894 57.3236 319.869
135.527 104.028 296.07
5.58271 69.8359 337.641
10.3281 48.2658 315.922
16.3106 -17.6415 291.829
-24.242 -12.8653 295.102
53.3484 67.0412 317.229
130.31 97.6981 309.281
0.784517 62.9337 356.292
31.0967 80.4753 323.66
14.4396 45.0941 300.548
48.4943 88.6372 303.492
25.6709 -53.5219 306.623
-15.0783 48.7762 340.382
129.699 105.608 290.621
120.411 100.113 296.722
84.6631 113.845 297.394
65.2729 31.4142 316.78
28.1419 -71.5079 322.027
93.6998 90.8333 313.351
-9.58624 36.4027 317.932
97.202 118.029 296.64
38.786 -24.6475 292.408
-84.5128 -10.54 271.027
72.5295 70.5581 319.735
-14.8755 26.7193 306.893
111.121 103.493 295.142
64.0907 -58.9382 325.568
-90.5444 54.4543 305.399
46.5566 87.415 303.744
63.7387 77.8286 313.411
22.1171 -29.8172 290.352
63.7643 -29.7992 309.17
-87.7344 -30.691 276.784
-54.4743 -2.71321 282.272
87.5431 -105.16 303.108
42.0193 -86.034 304.545
131.3 98.5927 304.785
144.586 115.405 294.118
7.35276 67.4404 330.863
-15.9549 41.6719 322.081
102.454 98.8544 310.547
100.097 99.9832 309.137
62.3319 -24.9016 304.022
103.881 110.757 293.085
-29.96 21.6481 297.666
41.732 70.1831 312.639
126.402 102.802 292.92
113.401 102.598 295.035
15.0063 -58.554 309.389
91.8731 110.524 301.041
62.73 32.3939 312.71
69.0253 101.161 301.071
126.729 -99.2052 306.837
107.778 -104.6 302.471
-55.5587 21.5679 287.29
11.9795 43.9349 308.974
50.2031 65.4866 317.388
-53.4719 -45.4887 302.035
60.7835 90.8555 305.118
57.6926 110.91 304.8
16.2067 57.1866 313.768
113.094 -101.104 311.279
-67.9722 -50.8593 301.739
1.48771 36.4502 323.159
136.04 -101.622 311.209
123.128 97.4393 317.927
68.5743 109.159 296.303
47.8918 -34.2981 298.451
60.088 102.976 297.89
128.047 97.2103 308.607
125.813 -100.063 301.357
-74.9295 -0.471731 274.319
54.2673 -105.831 301.618
-78.7792 -60.696 314.3
114.928 107.967 288.406
7.51671 -66.6171 332.129
93.4 -113.096 299.675
14.9512 26.6808 296.675
0.994751 -69.6734 358.233
31.974 14.2011 289.174
87.3396 -121.04 293.479
9.08725 -30.9661 316.603
118.657 -109.322 287.068
-71.1568 16.3139 278.926
-63.5786 56.2523 331.802
34.8978 -14.5401 289.009
-41.8868 46.241 316.274
144.096 117.9 292.143
75.4306 -61.8992 327.58
127.881 99.9377 298.114
-48.6177 46.1076 312.536
-40.9398 -57.498 333.225
139.863 113.946 289.992
48.9105 -85.8526 305.813
60.977 -105.862 296.533
124.489 97.77 302.627
36.7672 39.0426 301.111
44.5594 -53.7122 311.336
69.4157 -121.746 298.821
115.026 100.339 298.117
123.017 96.7237 307.698
-55.9785 55.1358 333.393
118.303 104.747 290.53
90.416 115.422 297.841
102.613 100.237 309.586
16.1572 -53.7983 304.609
70.9566 -94.8221 305.505
6.98337 -61.7556 334.74
107.772 117.446 286.116
135.085 -101.232 311.516
15.6117 69.0405 336.629
22.232 21.9809 289.155
-87.4903 -34.4844 278.14
62.5354 -34.2726 309.982
82.1619 73.9267 320.575
71.0094 74.805 316.9
21.1524 -41.3203 296.012
-15.0122 1.88652 297.871
59.0704 -2.58669 294.147
140.285 117.809 288.462
-53.8846 24.6423 289.519
-31.6456 -53.9054 327.898
22.9386 -24.6802 288.668
128.593 -109.462 286.822
4.91079 -64.6883 341.433
-49.5599 48.7541 316.889
35.3274 80.6355 314.628
62.9668 -2.63627 300.013
92.6243 117.473 297.17
-84.941 -25.2217 274.616
-15.1445 -9.68521 298.139
65.1504 -24.3258 308.608
63.0466 90.3855 305.93
36.9167 14.2834 290.346
74.5759 -79.2395 315.746
-48.0081 -50.5421 311.465
73.4848 115.262 293.913
-50.0141 -28.2355 290.146
4.57623 18.8246 310.243
58.2864 69.9439 316.711
53.9876 108.8 307.903
111.524 99.8452 302.31
-63.7093 -48.918 301.222
20.1031 -58.4995 310.548
11.0392 38.6771 313.095
-13.4114 -46.4891 323.21
-70.1518 -55.8086 308.521
140.839 103.367 306.766
76.366 63.8346 324.691
108.613 100.583 304.537
39.0374 41.282 303.23
65.1237 -39.9166 320.153
13.3684 26.6457 303.424
125.844 100.795 295.82
111.714 104.374 293.513
50.7185 -112.192 313.905
-50.9327 -27.2137 289.284
-0.439639 67.3572 361.416
25.5655 47.8827 305.536
123.523 110.714 285.327
75.1229 122.401 296.667
-10.4585 -35.9665 312.135
52.4758 97.9772 299.262
54.5788 -50.7702 311.1
-9.31324 -25.1691 305.314
87.1911 -117.78 295.412
-84.8995 45.4091 293.743
2.13723 -67.109 353.308
118.593 113.139 284.196
144.349 -108.166 302.034
4.36354 -62.0559 343.709
89.9623 95.4129 309.393
94.4088 93.2176 311.728
44.1945 -70.1712 314.183
47.928 63.2586 318.146
73.5493 -121.003 293.1
56.1792 93.123 302.704
-11.2872 -39.9229 315.599
23.7624 28.4884 292.158
3.49364 60.5792 344.794
-37.0528 21.1027 294.537
63.6334 4.89004 301.592
117.84 100.632 296.32
-1.30378 43.42 333.34
-19.509 27.3058 305.36
0.429153 -67.2407 360.592
42.2264 -98.1315 314.553
-2.37647 -27.2934 309.336
79.6344 113.714 296.275
146.287 110.399 303.001
74.8364 -117.544 292.693
95.0598 -120.949 295.321
-91.226 43.4233 289.928
-58.6767 -10.4699 281.16
120.724 -100.488 300.295
23.549 47.8056 305
121.181 110.741 285.307
25.0746 51.525 309.018
87.5038 118.448 295.386
92.5592 115.3 298.421
76.7617 68.1285 322.156
148.699 120.374 298.059
3.28542 -73.8308 348.557
-79.3734 6.77753 273.327
32.7798 -2.68273 287.486
82.9345 95.3248 307.775
59.1252 12.3508 295.82
125.235 99.899 297.32
-20.5947 32.9552 309.442
80.3015 74.9277 319.035
29.1382 63.1282 315.238
97.5381 122.359 294.301
58.5703 90.8418 304.601
56.4278 109.451 305.035
-38.4704 -17.6307 290.635
21.9967 -48.6348 301.443
47.3679 56.4299 319.838
-92.9041 -65.575 320.891
-52.0883 39.699 302.196
119.927 109.958 285.875
64.5876 87.2301 308.134
115.93 -100.09 309.54
67.109 87.6995 308.46
117.989 110.398 285.859
34.7884 4.87146 288.296
77.196 65.2493 323.937
40.289 -37.7805 298.452
89.2805 88.891 313.031
-28.3728 -45.1122 313.601
142.241 -109.705 295.242
89.1169 87.461 313.826
-39.6368 -30.052 295.445
66.309 -91.4003 306.494
44.699 -39.2279 300.331
91.9853 112.802 299.74
132.979 98.781 307.083
44.8005 92.8251 306.881
65.4858 -113.048 293.657
-66.087 1.41174 277.887
63.5812 55.9426 326.127
60.1905 -96.1163 302.231
-59.7365 -51.4986 306.818
112.695 101.334 297.621
-66.6219 51.3128 312.471
-37.2254 -55.6292 329
-21.3134 35.5408 311.662
-75.3856 57.8821 328.535
106.291 118.469 286.684
-65.9788 -20.4311 280.512
-61.3363 -40.1461 293.292
141.709 -104.846 308.213
79.3706 68.5233 322.866
126.611 -112.479 284.202
27.0674 -32.995 292.893
-33.9167 47.5847 323.435
52.5494 109.911 311.309
43.7127 -103.158 317.92
68.6686 -24.3768 314.743
118.66 -105.958 290.601
57.5601 84.1685 308.249
4.98742 -75.9056 343.648
136.631 108.976 291.172
46.0586 88.3593 303.076
-12.6914 -12.5976 299.604
52.5974 -34.3189 299.579
53.4433 90.2744 303.714
22.8654 11.8238 286.527
52.2732 -95.1044 301.009
56.5425 -71.6026 316.178
132.189 109.351 288.278
-84.9113 41.9415 289.783
-30.0828 -54.4882 330.681
-52.2807 -19.8424 285.791
83.1059 78.3109 317.73
0.674598 70.1554 356.606
127.019 105.26 290.177
70.4655 53.0998 329.418
37.7491 56.3501 317.543
-40.657 8.91826 288.897
30.5168 33.4229 296.225
37.6204 -2.60987 288.622
39.9853 56.3057 317.996
78.7405 100.2 303.938
135.806 -109.989 289.161
-31.702 -47.6166 315.43
-24.5424 50.1291 338.032
121.112 -107.697 288.166
77.713 93.1021 307.83
141.035 108.129 296.377
13.1403 -44.3897 305.916
-72.37 -18.6275 277.434
26.5632 -49.9047 303.566
120.748 96.8299 307.021
-88.1758 49.7012 298.061
139.852 115.688 289.052
49.5577 78.1644 309.847
5.50111 38.0577 327.325
82.9714 101.334 304.282
-85.4973 23.5299 276.152
84.815 112.377 298.285
-40.8174 -37.5933 300.151
-52.7195 49.6197 316.886
51.3887 70.0861 314.989
110.031 108.492 290.162
-30.6918 -51.6212 322.996
35.7199 27.0096 294.266
-64.7162 38.7117 295.479
145.727 113.041 297.911
20.9001 67.5604 333.917
28.0863 63.5234 317.922
62.7708 12.2309 301.806
105.604 101.427 308.915
86.8049 88.5461 312.644
37.4964 60.9891 316.991
-83.2729 23.3445 276.96
79.9213 71.6821 320.864
-15.1935 -5.23361 297.681
-0.0792675 -25.8402 309.477
34.8731 -55.9586 311.292
90.3985 118.791 295.874
-55.2684 19.959 286.656
52.1726 33.4727 301.281
58.1267 36.5491 307.458
26.6966 -31.8221 292.296
70.8201 101.298 301.417
-44.1537 -43.3216 304.014
98.5866 106.077 305.227
33.8668 53.8644 313.621
104.462 102.531 308.195
70.4047 71.3941 318.744
46.2254 19.6951 293.986
64.9904 107.693 296.306
-66.1801 35.0041 291.466
99.6405 112.7 296.755
-28.6517 50.1842 334.599
66.4797 -55.9559 327.92
13.7081 -47.3708 303.559
106.522 106.588 294.816
135.47 113.135 287.436
-79.8876 56.2375 316.83
53.4305 19.6122 295.642
49.1296 100.949 307.401
135.876 99.8295 310.641
39.1353 -58.6093 315.247
114.795 109.483 287.244
76.2821 82.9038 313.433
-78.6828 26.2296 280.286
15.561 14.6598 294.333
56.6468 -110.38 302.832
-84.0234 36.8552 285.347
-12.2402 37.0436 317.462
54.6088 97.8865 299.555
10.9125 -44.7467 315.421
82.8656 112.491 297.755
94.6765 95.1536 310.663
129.935 97.5642 311.528
31.0983 -83.7804 324.705
-14.7147 -36.4472 310.673
29.2722 -78.6878 324.733
-54.5688 -39.4286 295.645
-45.3866 48.9891 319.812
41.4956 96.9444 317.018
46.5835 -66.9818 316.66
49.1934 -104.623 308.585
70.4435 -85.6447 310.924
44.7861 33.5212 299.592
16.4279 29.2731 291.86
62.9353 -26.6693 305.907
110.02 112.714 287.14
145.706 108.541 305.806
98.724 110.258 301.75
-63.0671 -47.662 300.04
-78.3962 52.1417 307.543
-54.3337 28.3243 291.535
20.7291 -15.2629 285.808
83.5166 103.15 303.353
128.242 101.931 294.687
84.5904 110.536 299.305
-74.0977 -59.8121 315.079
105.065 107.155 295.654
-32.3987 -55.5113 332.434
-35.1335 45.2219 318.068
138.145 -102.735 311.936
-7.75836 -42.9323 320.874
117.282 107.567 288.069
55.5748 68.509 316.903
3.8224 26.3572 314.474
-20.0076 -5.45153 295.812
147.292 113.31 300.944
140.011 106.577 297.149
-72.5206 1.2897 275.365
7.43206 11.7425 308.578
36.3108 53.8482 314.165
101.018 105.878 305.244
-32.9866 50.131 330.961
39.3251 -83.4629 306.855
-63.2082 -37.6516 290.511
1.35253 60.542 353.922
-56.2589 -58.8727 325.248
110.366 -109.789 290.484
118.938 102.514 293.132
81.2032 102.981 302.902
82.742 93.1935 308.971
13.3363 29.0754 303.508
111.672 107.985 289.728
122.719 96.5715 309.848
103.585 106.296 298.884
-87.3915 57.4766 315.512
60.7076 -31.1874 304.543
63.1479 70.4145 317.591
112.601 -101.858 303.152
-45.3491 -37.3244 297.97
85.5276 115.179 296.822
115.695 98.319 318.457
-57.6012 45.843 307.523
72.5096 -54.037 330.81
103.901 103.387 305.649
-49.1115 26.3318 292.454
-3.30436 -34.8599 314.331
61.2667 56.1467 325.458
-86.1655 -64.6386 323.081
52.468 84.2894 306.969
51.6519 -71.0869 315.357
132.155 -100.357 305.502
54.8705 102.426 299.632
-50.4119 -23.4635 287.842
118.807 -100.929 318.403
56.9653 77.8565 311.786
-26.4039 -44.7329 314.086
-69.6751 -34.9891 285.909
145.514 -110.56 299.367
77.7798 -120.982 291.3
107.093 112.745 288.884
79.6151 106.055 300.734
-47.1992 -3.25736 285.108
69.786 -82.4683 312.688
-76.3276 24.0855 280.124
69.3141 99.8265 301.917
126.731 103.985 291.525
-70.2526 4.26827 276.523
64.1855 98.1144 301.696
-70.8121 54.4447 317.73
128.452 140.122 336.715
51.0452 102.651 306.03
144.344 108.009 302.557
54.1053 -9.70269 292.866
110.837 115.55 285.317
98.6883 113.843 297.242
-56.618 1.95987 281.631
76.2779 80.8187 314.647
-69.0041 35.0365 290.289
14.725 -39.6684 299.059
-24.0721 -44.6756 315.141
4.28683 -59.3147 343.978
30.5367 -39.3453 297.039
-20.4915 -22.6677 299.604
44.4778 97.6318 312.216
4.28822 -31.5613 314.987
111.641 98.81 314.896
73.79 -59.3031 327.656
125.459 97.6763 318.191
54.8622 -34.2944 300.099
60.2981 84.354 308.791
27.9302 -76.6351 326.179
128.716 115.654 283.587
140.767 -112.447 290.592
-25.8361 25.0291 301.233
140.62 104.757 301.377
16.0132 -54.9093 305.662
-5.96244 -44.4392 323.89
117.074 106.102 289.441
19.9658 16.9571 287.058
-43.1676 51.9682 329.77
25.5463 -0.438214 285.809
99.6655 120.212 292.099
113.871 111.648 286.105
124.889 98.6031 300.199
-82.5756 46.3617 296.026
77.1804 -83.6473 313.689
-53.3777 -52.7271 312.191
119.065 101.589 294.433
-8.1385 -34.3092 311.731
108.82 108.008 291.394
61.922 0.12146 298.382
121.774 -99.3199 305.139
13.3519 4.28773 303.972
-70.7019 -57.3925 311.388
15.3972 -27.2568 295.928
-66.5935 52.0479 314.188
20.6892 -55.9622 307.903
63.2587 -29.1485 307.892
-10.1627 37.58 319.086
69.7016 -115.294 292.991
126.16 115.375 283.218
138.608 -112.098 289.141
-53.0084 -51.6763 310.641
-50.314 -59.4071 333.513
-34.7885 35.679 305.762
-71.4041 -51.8056 301.327
68.2747 -122.19 300.689
-84.7954 56.6911 314.774
127.555 -105.878 290.307
79.7641 90.6104 309.769
32.5384 -54.8981 309.61
101.128 -100.71 308.939
107.077 -103.832 307.869
-21.1678 24.4071 302.786
-87.0803 -10.7858 272.666
-56.41 -5.93938 281.608
114.273 105.694 290.732
107.471 111.294 289.585
52.384 46.2442 310.264
43.8394 -59.184 317.077
105.465 114.162 289.192
-61.4368 -13.044 280.473
-63.6788 32.093 290.231
101.353 120.309 290.197
43.436 95.2708 311.762
3.82858 -64.2385 346.037
43.7851 68.3832 314.176
70.7787 -122.687 298.369
114.147 103.568 293.288
132.778 101.558 297.931
-98.9311 61.3504 323.749
81.5406 -100.912 304.281
69.3118 -91.3616 307.212
28.2014 -39.2502 296.429
-79.8783 32.0587 283.426
-83.9964 -57.2115 303.361
-46.1237 -51.8862 314.699
64.8828 114.676 299.184
124.59 96.6469 310.579
60.3859 68.5142 318.042
66.7237 10.7668 307.898
73.6806 -77.8335 316.387
145.368 109.73 301.62
-74.25 -53.8865 302.986
9.4609 16.5311 311.151
-56.6355 -55.7715 316.377
61.1903 95.4845 302.518
60.8848 -71.0841 317.497
-27.3954 -25.6559 298.153
80.711 -99.4526 304.97
4.34238 -66.8456 343.902
127.211 97.1348 313.924
-24.1966 4.153 294.511
35.2389 89.4934 322.457
142.073 105.785 302.089
131.722 99.3889 302.239
125.636 96.8478 308.368
120.887 97.274 317.114
0.753704 37.6539 324.429
-43.1876 11.436 288.503
35.7539 -85.7999 316.233
122.589 98.5415 300.02
-85.1297 46.4003 294.844
144.655 107.447 305.01
61.8225 -36.7106 310.549
-85.8948 -63.6483 318.572
143.355 110.281 297.003
50.3058 98.2764 302.663
18.2737 -2.69217 284.551
-54.2874 -36.3724 293.383
51.419 -17.285 293.448
-69.9033 -60.1228 318.91
0.000688137 -71.9914 362.521
115.678 101.292 295.996
-82.1221 58.4857 324.414
22.4299 52.7689 309.781
124.957 106.464 288.651
-57.8693 46.835 308.962
-34.854 37.1684 307.283
3.43218 58.0173 345.11
73.115 95.2221 305.503
110.935 104.567 293.769
106.165 108.115 293.427
71.4998 63.6511 323.516
38.6472 -95.8162 319.111
55.9797 46.6325 314.059
-72.1326 49.2439 305.571
105.212 110.139 292.313
112.596 106.383 290.756
27.0799 -29.38 291.345
6.23813 -42.2806 326.961
-59.0343 7.94996 281.473
-3.52239 -44.181 324.757
119.694 105.871 289.204
55.786 39.4402 306.167
-49.8019 1.55475 284.258
116.048 115.412 283.638
51.6547 -4.93639 291.953
36.0222 85.4892 317.362
-50.8864 -51.5972 311.631
62.6766 65.234 320.498
-33.8546 -56.9137 337.687
128.29 113.272 284.569
151.032 125.74 302.417
108.085 -112.512 289.681
70.4735 112.626 294.734
-77.6951 -22.3592 276.454
-70.294 48.9405 306.02
34.887 73.0632 309.876
145.055 110.302 300.043
0.0735711 -37.3379 318.137
77.0987 71.5681 320.232
56.4065 -116.869 310.353
-10.4488 -5.49688 299.553
-36.5389 -54.1019 325.098
85.6251 -110.118 299.672
2.87769 60.3578 347.424
139.723 112.884 290.576
-5.33816 -42.4437 321.417
15.6981 -10.188 294.281
-26.1472 -51.2195 324.867
-92.1379 58.7769 316.564
-63.0108 40.7236 298.367
91.1302 -98.1061 308.195
39.9397 -2.31311 289.169
61.6779 -31.8357 306.697
-83.2024 56.4761 315.228
37.6813 -53.5915 309.57
-17.2492 49.0818 339.82
103.227 117.935 289.216
128.383 97.7351 316.387
80.2234 -105.364 301.29
68.4733 -85.866 310.334
61.6384 61.3946 322.488
12.6471 38.5508 306.244
130.848 98.5176 317.046
53.4139 -27.3184 296.803
26.2845 43.9406 302.313
64.6557 -29.5104 310.604
13.3064 14.3769 303.951
-89.0255 28.3498 280.121
46.9001 -9.71305 291.175
104.841 117.67 288.033
-9.00724 -39.2571 315.945
26.2537 28.775 292.865
9.8109 41.2792 318.276
66.924 -39.3633 323.499
139.717 110.003 292.821
49.2342 10.0695 292.369
20.7541 -17.638 286.294
78.0231 117.212 293.854
64.3589 -57.5386 326.474
-67.9717 54.1379 318.757
81.5545 104.752 301.954
72.089 -78.1716 315.814
76.8293 -82.53 314.282
139.283 101.928 308.879
2.43466 65.5149 349.202
-95.1684 -63.7826 311.652
41.0011 -92.7124 311.779
-76.1749 52.0657 308.621
38.285 26.9407 294.832
20.1524 39.02 297.245
63.5662 -94.8356 303.786
73.0503 -119.488 291.942
-10.7245 -45.2981 322.742
122.539 105.612 289.306
69.0824 12.1434 312.231
-75.0681 11.622 276.006
137.58 -108.035 292.527
78.9865 102.898 302.425
62.6824 68.4736 318.611
7.02412 60.7292 333.557
120.031 98.8074 299.589
65.2711 109.951 295.752
125.969 113.79 283.877
-36.0021 -57.166 336.665
-82.9476 47.172 296.981
-79.1644 -35.2107 282.05
114.719 97.5205 310.798
58.6271 -36.3655 304.234
87.848 84.1692 315.442
65.5149 123.917 309.533
80.7782 117.235 294.496
-47.1249 47.2619 315.334
38.1117 28.9745 295.713
121.727 -102.166 295.859
19.591 41.2697 298.735
136.094 100.027 308.455
-58.5997 40.4807 300.096
83.8153 -111.983 298.128
130.505 101.447 296.583
41.4302 19.2732 292.742
64.0551 -31.7398 310.997
27.4807 -19.6447 288.321
14.4481 12.1114 299.132
77.7543 112.602 296.477
51.5387 -68.8312 316.692
-47.0292 -8.10036 285.433
60.3528 -66.9576 319.863
33.9397 70.631 311.239
-81.5051 50.1687 302.259
59.4839 -21.5491 297.789
-8.1825 -7.73374 300.616
-80.6106 21.1515 277.02
-89.3721 37.1659 283.302
-15.9775 -47.7615 323.962
-69.1058 52.1758 312.977
-76.2725 -47.9946 294.152
52.4934 -112.905 311.861
-87.9203 -48.2369 289.007
69.9482 46.9265 333.018
-85.634 48.7671 297.922
69.9445 48.6545 332.124
-55.3952 -52.2005 310.221
-65.4571 -47.9774 299.276
-80.4233 52.6549 307.423
-78.9354 47.9385 300.035
71.1343 49.2348 332.532
6.50416 27.6127 316.564
-17.6163 -51.116 329.884
49.1615 92.7914 301.248
53.7896 7.39486 293.035
129.606 98.963 301.604
69.9471 -2.54127 311.677
3.38166 -2.91485 304.863
98.5711 -117.083 297.713
-40.3792 1.73808 287.953
12.1383 29.2649 308.611
1.67252 67.4784 352.409
-55.64 -60.2514 332.421
61.785 -26.9266 304.029
107.975 113.781 287.675
72.4861 -100.599 302.373
7.25513 65.5082 330.95
51.7544 56.4961 321.105
12.7102 16.7877 306.441
-61.3644 1.83361 279.767
115.437 110.924 286.1
106.451 110.462 291.012
-87.9302 54.182 306.336
51.9571 75.9138 311.729
-1.58696 67.8656 366.296
73.3205 117.817 293.169
95.4951 -97.782 309.401
29.9159 -42.7153 298.964
-57.0466 16.1072 284.454
66.5666 -111.933 294.164
4.93442 -66.9322 341.38
65.8855 9.62127 306.202
-84.0727 -37.2504 281.317
130.3 108.017 288.608
53.3234 -106.595 303.909
-87.18 6.63332 272.718
23.2476 48.8491 305.932
-29.4416 9.32322 293.4
-31.0989 32.7567 304.671
80.2007 76.013 318.379
35.5867 28.7813 295.037
32.0447 -66.7815 313.415
61.236 -68.563 319.099
-56.4524 -8.15116 281.752
69.0737 -0.0263345 309.907
-65.681 56.4571 330.572
-42.8649 31.1613 298.358
-23.6464 -30.0701 302.128
107.335 100.596 309.012
-82.0945 -40.935 284.871
95.8625 93.1432 313.552
75.8736 76.455 317.093
84.571 88.8835 311.917
2.74625 -38.149 320.192
38.552 93.5107 319.436
-63.2032 28.5648 288.017
18.335 -12.4308 284.913
14.0281 -0.482148 301.192
87.187 -100.777 305.67
63.2504 -32.1884 309.827
8.29476 -74.9707 339.787
107.184 108.783 291.866
39.4133 93.1624 317.462
20.8657 -42.7034 296.805
59.2979 117.498 309.942
-48.7317 -57.5759 326.678
67.2493 46.4517 332.528
-81.8079 -49.7682 293.616
57.8698 116.755 311.062
67.5379 48.8046 331.226
-83.0511 48.3309 298.577
63.7888 -122.668 306.816
69.2697 49.9121 330.992
73.0773 56.4347 328.354
-87.8321 48.8646 296.986
72.821 57.824 327.225
69.8275 107.776 297.406
22.7865 -44.103 298.237
70.8137 55.6547 328.012
73.7115 61.0927 325.532
70.944 59.089 326.042
68.4039 56.2938 327.067
-47.2776 1.7874 285.263
85.7649 80.8254 316.943
-32.0968 -49.3442 317.931
70.7513 57.8591 326.713
80.1175 73.3663 319.901
97.9371 -112.854 300.872
61.0673 70.5246 317.033
65.9692 56.1907 326.549
66.8196 14.51 309.273
68.3731 57.6529 326.268
110.306 111.255 287.89
66.8253 61.3124 323.768
63.9308 59.0665 324.389
26.6156 68.2631 324.894
69.1308 63.5506 323.011
28.3197 46.3875 304.833
83.2719 80.9291 316.243
60.334 22.0031 301.531
-52.5702 -23.3303 286.924
61.1442 -5.16077 297.139
74.7375 88.7587 309.654
-59.8105 -60.5117 329.094
67.612 -14.8124 309.176
102.346 -108.301 304.16
47.7795 61.3364 319.231
-55.7315 47.3237 310.869
-2.37042 -33.5456 313.631
34.5655 19.4638 291.197
-11.046 46.0129 333.713
75.8656 61.3623 326.058
-4.03636 -71.9232 379.879
73.3498 59.1495 326.578
56.8266 -90.3129 304.954
70.4222 54.3893 328.656
15.3235 -39.5214 296.505
-40.1413 -5.55797 287.945
-17.7845 40.982 320.082
46.173 -29.3346 295.84
53.3971 70.2558 315.368
15.63 -7.70128 294.517
-86.3849 -8.28616 270.582
52.1276 -90.2744 303.889
-72.1305 53.4239 314.082
4.06326 63.1009 342.311
146.449 -112.03 298.87
64.741 104.634 298.029
-20.8683 -42.8756 314.435
-19.7837 -35.4596 307.592
132.22 -116.902 282.935
13.7294 36.1817 301.681
19.6883 -27.988 289.065
40.9168 63.4029 316.397
69.3735 104.887 298.982
-71.3221 18.7345 279.758
28.2205 -64.2206 316.71
-47.1508 44.5776 310.806
134.42 -116.91 283.743
-81.0157 26.1758 279.305
-52.892 -59.786 332.781
-3.81603 -17.5864 304.426
112.766 115.505 284.545
-67.6466 17.821 280.862
20.8599 57.1865 315.099
16.2799 -5.33745 291.696
29.1718 -29.8539 292.039
17.4955 -7.49538 286.561
50.6063 -49.2868 308.809
-39.4003 49.269 324.058
60.947 54.4024 326.398
94.7022 92.1848 313.357
-18.3424 -39.3771 311.793
51.5713 9.52742 292.835
-32.8696 -50.6297 319.806
46.3601 90.4329 302.422
51.0682 88.6512 304.095
-19.5835 -7.72664 296.147
123.274 -100.102 301.047
75.2741 124.369 299.024
-25.4163 -49.5002 321.888
-65.5861 41.2344 297.743
60.7972 93.0725 303.83
-66.9201 -53.583 306.359
78.3265 78.013 316.768
-75.6236 55.726 318.304
76.3578 100.069 303.449
68.5285 97.7074 302.965
25.1169 17.5293 288.426
58.9392 95.3514 302.06
88.8088 107.729 301.942
63.316 93.0824 304.422
76.3818 103.106 301.684
73.9246 102.627 301.38
96.8901 112.631 300.856
-32.6759 49.5423 329.287
-78.3622 56.2229 317.948
84.0371 104.668 302.592
20.4391 -44.1743 297.729
16.782 7.30554 289.285
81.797 108.184 300.012
43.3948 -29.8124 295.382
42.5077 100.026 318.656
63.3192 101.17 299.71
79.924 107.982 299.685
35.0085 -2.62847 288.009
71.6125 103.017 300.604
89.1273 110.475 300.418
59.5815 100.149 299.418
112.371 -105.717 294.106
43.4842 43.6356 306.026
64.4653 102.759 299.057
57.2998 99.9933 298.966
101.546 -112.1 298.44
2.32165 70.5942 349.576
61.7221 100.151 299.925
57.3274 102.62 297.723
54.3904 100.214 298.768
62.1135 103.397 298.126
116.674 113.207 284.492
93.5943 -97.7975 308.952
-80.2521 -58.5251 308.072
-35.5807 -52.5582 322.09
61.5614 97.8691 301.216
66.7385 119.25 302.339
74.3576 -112.011 295.921
4.6351 55.6663 340.033
73.9822 63.7905 324.024
51.5906 95.0632 300.483
51.1864 93.1053 301.528
115.916 -107.505 289.762
80.8321 118.805 293.593
64.2065 100.091 300.549
-80.2335 -23.1453 275.727
59.1927 98.0655 300.539
-80.0018 39.1249 289.143
31.6934 -59.5525 314.612
-83.1994 -64.129 323.5
54.383 95.1582 301.091
16.9626 47.9231 303.603
-77.0448 -3.16356 273.457
118.074 -107.123 289.42
78.8579 118.422 293.348
-24.1778 -17.9706 296.425
60.3913 31.925 307.876
89.7248 112.357 299.463
37.2451 -83.5752 311.234
-86.398 -37.5385 280.525
31.8494 -24.7682 290.807
90.9922 104.814 304.159
87.4968 112.818 298.665
75.0108 110.386 297.117
32.3276 77.6917 318.662
62.5084 108.018 295.827
24.6207 -30.1748 291.093
-81.5431 -36.8196 282.102
68.0291 110.403 295.449
-85.9583 -47.8839 289.544
65.855 110.562 294.899
80.2599 115.144 295.591
46.3848 14.1693 292.533
94.846 117.122 297.903
70.6465 -66.6801 322.414
95.4706 120.441 296.116
49.7734 -96.1731 299.864
66.7559 58.0427 325.657
53.785 -104.475 300.95
93.2099 120.151 295.749
94.7832 118.356 297.169
-41.8129 23.62 293.886
77.9815 115.198 295.018
75.7512 117.136 293.36
65.9552 -57.6151 326.798
72.7276 113.875 294.541
-74.9809 54.7639 315.848
76.4056 118.371 292.795
54.9694 -105.335 299.99
91.3666 120.622 295.037
95.2902 122.095 295.111
88.621 122.026 293.566
90.5886 122.019 294.038
-33.1552 46.1252 320.828
113.116 113.551 285.338
62.8598 54.5517 326.766
67.2767 105.744 297.985
3.65326 70.5186 344.523
83.3541 82.9002 315.114
64.3889 63.6212 321.844
-82.7186 -60.9519 312.313
89.2041 90.2706 312.209
3.82838 -74.1196 346.249
-71.5433 21.2704 280.704
56.8812 59.1157 322.686
53.5596 50.4011 314.526
56.3991 57.6794 323.409
-84.1833 32.7847 282.126
80.9673 80.62 315.876
-28.9796 -15.1532 293.735
84.6831 -119.753 293.64
-0.127422 72.2323 361.244
72.9643 -87.9829 310.097
62.0569 63.4132 321.411
46.3354 98.7589 310.094
-18.7636 -29.6714 303.917
84.5371 84.223 314.625
71.6196 80.7766 313.565
57.3468 -108.695 299.962
2.279 -39.1562 321.067
86.5662 87.6454 313.112
61.4 62.4468 321.819
89.755 93.2573 310.6
-87.7244 -60.9297 308.891
70.3941 73.4034 317.57
43.4174 -61.3547 318.71
120.027 96.6683 309.472
82.2724 105.634 301.61
57.5397 63.7181 320.161
61.302 67.1219 319.071
3.80796 71.6619 345.498
48.3521 107.121 315.275
-54.4545 1.37004 282.426
78.5585 80.807 315.195
54.9227 61.0375 321.101
59.9171 63.697 320.738
-78.5597 -28.3295 278.543
95.8427 -111.952 300.932
-53.9357 54.7928 333.499
52.3129 61.1218 320.432
61.6973 112.595 300.995
110.994 -112.355 287.757
81.6902 85.8426 313.005
8.89339 -74.2868 337.372
84.3125 105.992 301.887
93.4108 -111.98 300.352
63.4674 92.0723 305.047
127.579 108.89 287.11
39.2905 19.8405 292.411
97.1512 98.265 309.438
71.0842 78.1307 314.98
-81.2511 57.9658 322.617
92.3311 95.4305 309.945
97.6146 100.352 308.332
-0.254568 42.41 331.771
-67.1369 26.8247 285.354
17.2511 19.0203 287.631
-4.44663 16.7996 305.687
59.9236 101.516 298.702
50.2818 48.081 311.39
136.312 111.065 289.262
17.4818 39.0401 296.641
61.4448 -94.9153 303.246
86.7069 105.906 302.505
-35.7796 -15.1004 291.029
52.54 63.4123 319.152
15.2427 -19.7749 296.427
44.8681 59.105 319.84
69.1858 78.7544 314.165
73.6183 80.8602 313.991
-86.5194 11.2585 271.472
67.4275 12.3281 309.528
-3.84038 -45.4474 326.587
44.1359 11.9075 291.509
49.694 60.7985 319.999
50.2613 63.4671 318.579
6.45483 67.7743 333.207
76.6087 -78.0076 316.96
42.4632 58.7093 319.499
-43.8793 51.6256 327.933
102.921 101.514 308.915
-52.1419 6.339 283.915
-29.506 33.5755 306.117
83.6667 -78.1159 319.465
76.5341 -86.9649 311.538
-97.0114 59.0551 313.991
-14.551 -50.6919 330.799
50.7967 -110.264 311.751
124.275 -109.85 286.012
-63.8906 -58.1674 317.548
58.5399 71.6147 315.797
-88.4911 -50.7087 291.549
63.9394 76.2064 314.404
68.1153 76.2716 315.358
-23.9989 -0.601566 294.198
76.7666 85.6871 311.926
13.3783 -74.2133 338.244
53.1429 68.1315 316.545
94.9595 100.152 307.818
42.1027 86.298 305.889
74.3054 -112.924 295.358
111.219 -116.93 284.755
-22.5326 6.6926 295.56
82.6292 115.624 295.874
-42.7377 -36.8053 298.7
15.629 12.1729 294.097
31.0496 74.6094 319.184
66.9262 -79.3354 313.917
-50.1653 -50.6632 310.523
15.8616 -27.0177 293.944
-27.8046 -54.1677 331.374
-16.6444 23.9613 304.381
47.4087 77.8897 309.497
-53.989 -54.4215 315.06
60.803 23.8509 303.277
-9.24816 -27.0848 306.374
12.0048 36.5142 309.026
69.2788 126.079 307.663
39.0141 -68.8205 313.798
-49.7421 47.5749 314.496
12.7489 24.1322 306.118
119.649 116.095 282.772
-32.6817 36.46 307.513
80.3215 95.1862 307.235
-75.8952 -44.3993 290.618
14.7112 -29.7765 298.907
51.9441 77.8805 310.579
139.404 103.784 301.454
10.1899 -2.63601 307.518
32.4165 67.8831 311.776
-60.4922 -45.3557 298.627
36.4089 77.6755 309.81
64.2637 7.28031 303.048
43.5507 -90.7803 305.181
67.1205 103.027 299.531
-0.682342 -29.0091 311.1
85.1102 -88.0667 312.859
2.67786 -64.6362 350.951
-9.83021 35.2767 316.558
29.1781 77.6526 325.854
-77.4753 57.8663 325.82
109.19 118.498 284.994
52.8912 28.9563 299.142
17.448 -31.9025 290.157
37.8825 37.8427 300.59
60.9767 -110.398 296.629
-86.1729 -13.1188 270.804
-42.7068 40.202 307.087
63.009 -121.313 306.258
17.5545 16.8308 286.927
96.1224 -120.81 295.651
0.172157 62.8708 358.904
-50.5618 53.3482 329.181
89.8825 113.78 298.671
141.656 110.615 294.383
53.2595 -63.9108 320.059
18.196 9.69697 285.348
121.533 -100.471 318.074
49.6298 -9.77777 291.821
-47.2228 -53.8988 317.953
114.585 -105.012 293.683
56.8944 28.9417 300.07
-68.0504 -2.92008 276.97
-87.7799 58.6765 319.895
57.8967 85.7349 307.416
137.722 100.961 308.478
-21.989 -2.89521 294.952
1.21361 67.4831 354.366
92.9447 -110.127 301.362
-48.9201 -52.1917 313.714
-66.8173 55.1259 322.917
-22.715 -23.3841 299.007
-34.6114 21.1436 295.543
-77.0756 -38.0428 284.837
-14.1074 -52.6976 337.059
-24.5896 49.6974 335.972
123.074 100.896 295.243
-52.1492 -13.0349 284.125
5.78977 65.3994 334.902
98.5515 -122.007 294.691
59.8434 -79.1995 312.359
-96.0721 60.5517 321.447
-0.248732 18.638 308.204
109.357 106.489 292.557
77.8191 73.607 319.215
37.3857 9.50079 289.512
49.5727 97.7064 303.374
12.0725 -41.9227 310.415
-31.4951 -3.21899 291.238
72.8302 90.1794 308.373
86.7529 121.55 293.4
41.9843 -54.8785 311.85
36.3412 -63.8668 316.168
-59.6671 -57.65 319.015
63.1312 71.4149 317.004
66.378 91.8839 305.848
-16.7969 -53.7865 339.205
-57.7693 23.6117 287.399
41.827 -55.9477 312.947
140.423 -105.663 299.94
39.9799 95.187 318.273
69.8165 88.8679 308.422
44.632 -54.9969 312.606
46.1696 -82.3485 307.292
-56.4516 -37.0781 292.989
62.5418 83.9088 309.584
126.08 -109.892 286.069
-57.5223 -57.2563 319.403
65.8021 71.932 317.337
-54.2757 -0.29811 282.382
33.164 83.5654 321.685
95.1049 -109.987 301.946
-88.0362 -28.085 277.111
115.666 -105.757 291.999
40.2762 96.8162 320.132
61.4691 -120.004 306.738
63.8503 -1.9728 301.449
-28.5912 -43.9769 312.063
8.30381 27.0564 316.89
37.8973 90.2933 317.677
-50.2111 -49.4928 308.73
-70.64 57.2049 329.68
19.553 -30.2283 289.918
12.1502 24.0382 308.673
36.801 73.1124 309.761
-82.4767 8.38007 272.374
-37.3388 -51.658 319.216
94.613 115.058 299.05
-16.164 15.933 300.664
38.3355 79.7621 307.578
103.24 -103.892 307.508
34.8215 14.0578 289.807
-80.2364 36.2851 286.499
-20.121 -36.9263 308.701
43.8933 -82.5526 306.642
-58.4823 -37.3588 292.327
51.8265 -109.7 309.536
39.4408 2.67558 289.214
29.1453 -26.6055 290.81
79.2539 -97.8875 305.577
5.43756 -64.2826 339.178
5.97009 60.0454 334.956
31.217 82.6888 326.019
68.4029 -2.36819 308.78
-49.8364 -12.208 284.885
1.86397 -48.3179 335.538
64.0677 -91.3845 305.984
52.2052 -39.2188 302.112
-46.8317 46.7075 314.464
69.9533 70.3388 319.251
68.1858 90.5394 307.061
-37.3214 -43.8995 307.839
48.6745 90.2659 302.586
-92.1858 48.19 294.378
-30.608 -50.2958 320.453
58.5525 9.49578 294.68
41.0484 -95.6045 314.399
37.1765 -7.16137 288.689
78.7448 -93.0512 308.377
30.1896 4.64531 287.201
-1.20879 -67.2492 367.575
-4.51125 18.9613 306.639
113.165 104.96 292.007
102.028 105.877 302.827
97.0952 -105.35 305.205
29.2632 54.1726 312.917
51.3315 90.0979 303.315
56.345 9.6974 293.977
57.0123 -104.529 296.64
44.1639 -86.0368 304.602
128.923 98.1772 303.695
61.6564 -91.675 305.251
49.4786 -39.4782 301.62
-54.5585 -50.0524 307.331
34.1577 -29.6271 293.124
64.0972 -90.2507 306.675
138.777 -105.526 297.732
111.539 99.0887 305.245
58.5743 -39.0977 306.279
-10.8481 -44.0484 320.861
-10.531 -12.6255 300.463
-54.1105 44.4563 307.234
-50.9526 -52.6895 313.494
-29.8984 -39.2727 306.45
13.82 23.7605 301.56
-40.4376 6.83229 288.574
-15.2968 46.5501 332.393
78.9498 104.673 301.381
-44.7667 -34.0131 295.78
88.6333 -113.029 298.612
41.2398 -29.7292 294.835
13.5053 -56.1946 306.631
139.136 104.465 299.458
74.959 90.4004 308.75
126.295 -105.945 290.024
77.565 90.451 309.34
-2.7074 18.9126 307.344
111.318 105.659 292.235
-66.7402 -61.5325 327.177
41.5396 -57.3015 314.351
1.64669 -48.7216 336.445
-31.9481 29.9944 302.076
115.316 97.4546 308.601
69.0776 61.2749 324.325
-10.8406 -20.1138 302.496
3.408 63.0188 345.106
58.7309 -87.9759 306.805
49.4912 -17.4219 293.022
-45.6047 32.8247 298.502
44.8812 78.5794 308.495
116.47 102.751 293.45
-43.7537 35.4656 301.625
46.564 -57.2129 315.465
-9.91484 -40.7623 317.163
-64.2475 -51.9335 305.147
3.06424 53.0828 346.785
31.766 -64.0738 314.984
28.3347 -78.5323 326.73
-20.1579 -38.0639 309.693
131.092 104.055 292.99
-88.8216 33.3861 280.844
-41.6085 34.934 302.075
-87.1696 -51.5897 293.218
-13.3894 -51.1067 332.705
55.6068 -109.563 303.44
-82.3855 36.3277 285.613
-73.9392 56.7875 323.774
15.5795 -56.257 306.995
71.8389 -63.9807 324.319
33.4057 77.966 316.427
-61.4251 13.7916 281.978
45.439 63.4622 317.436
-33.0255 -44.4166 310.484
89.8699 96.7632 308.584
6.00079 -64.169 336.775
133.377 104.496 293.713
14.6299 -12.5697 298.885
-14.8321 44.807 328.441
-86.8739 -20.3491 272.657
74.4612 -80.7167 314.828
132.449 99.7752 301.888
-3.46067 -10.4987 302.842
66.3631 -29.5236 313.703
-62.1222 -44.2329 296.72
77.4468 -119.582 292.068
-84.534 -42.3986 285.002
7.24726 70.6359 340.697
-83.0233 16.6193 274.323
67.607 16.8811 311.563
130.656 -106.961 289.878
-59.0673 -15.7492 281.973
13.281 16.5829 304.012
-30.7916 -55.7465 334.854
42.7285 29.0145 296.805
110.717 -114.029 286.688
-51.7117 -3.06146 283.348
74.6326 -82.3473 313.884
117.567 99.7318 298.164
48.4288 -83.867 306.899
20.2848 -24.9497 288.141
72.2225 -82.2483 313.385
-34.7589 34.2157 304.409
-48.2001 5.96329 285.398
75.3831 74.7487 317.971
39.2495 85.4902 310.644
-22.4473 -45.6967 317.341
138.178 105.821 296.068
-43.2982 -41.9932 303.046
-9.77814 -3.27972 299.719
108.062 115.428 286.801
102.195 116.336 290.92
-69.542 -32.5194 284.441
33.8269 -63.9983 315.507
-65.3433 -55.0963 309.894
-47.7088 48.5998 317.629
14.4998 4.62586 299.072
64.3011 -19.6111 305.181
-60.4358 27.1752 288.302
68.5599 -27.212 316.428
-69.0883 -27.6877 282.105
123.924 -100.831 298.736
66.9973 -122.473 302.526
7.48267 -71.9664 331.689
27.3739 -71.6952 324.069
41.9571 72.8483 311.14
-78.5621 -59.6559 311.684
108.933 -114.808 287.343
-38.2552 -15.2146 290.076
57.7859 -41.5266 306.804
-78.9467 -37.4557 283.63
-9.23516 -47.8731 327.946
30.0558 11.9066 288.222
128.032 97.1316 311.69
91.2342 88.4949 313.726
96.6617 -100.539 308.008
56.6705 -44.75 307.663
30.1389 -7.52696 287.058
60.1018 12.5513 297.493
69.807 2.20658 311.88
44.7733 -98.6298 310.255
-48.487 -30.2524 291.889
44.2024 45.2456 307.524
-69.0725 55.5046 322.553
54.8754 31.7683 300.983
38.0555 82.5872 310.602
6.38068 36.0278 324.963
-44.7633 -20.5865 289.048
27.1128 -24.6258 289.643
-84.521 56.1867 313.518
-7.11195 -25.0401 306.154
-81.1423 -60.849 313.107
-75.167 42.1994 294.444
-82.5023 -52.0153 296.089
130.149 109.312 287.532
13.5945 -29.729 303.666
-72.6075 -7.94719 275.407
-5.48704 1.75871 301.579
58.4917 -102.861 297.769
129.008 104.016 292.159
-69.9086 1.25136 276.382
146.462 118.072 295.247
-30.3809 -41.7326 308.693
58.8138 -0.235729 293.906
8.06398 -13.1033 307.909
69.6623 -123.252 300.355
-80.3377 -27.4334 277.402
118.01 108.38 287.282
146.986 120.512 294.926
-86.404 -10.8385 270.625
36.7765 -24.768 291.975
29.7035 -24.5631 290.234
34.2268 -24.1975 291.186
31.4091 -65.589 313.987
65.2429 70.3895 318.103
-2.77324 -72.2011 374.35
-66.2003 -56.7601 312.73
-48.0988 53.5478 332.445
7.76291 9.62344 308.097
-20.5428 36.4053 312.923
27.1066 63.6119 320.451
-60.6154 52.0024 317.675
18.9926 -72.5793 334.556
62.104 -96.1914 302.629
2.06318 -64.6382 353.571
124.879 107.884 287.446
78.3998 -110.045 298.043
64.4932 80.7693 311.877
56.0064 -107.865 301.035
-55.6576 23.9998 288.458
68.4307 -82.5383 312.332
111.028 101.798 298.067
-62.24 -27.7757 284.937
0.138768 65.5737 358.988
-49.6882 -15.4693 285.616
-64.5392 -61.1865 327.66
44.0074 93.5543 309.041
67.3105 31.7161 321.648
69.0726 114.379 293.56
-63.8097 -6.0037 278.718
59.6433 -15.397 296.185
-72.7905 -15.4224 276.483
134.348 108.144 290.414
134.618 99.3476 308.116
120.721 -99.198 310.658
71.8156 -117.693 292.089
14.8437 36.2444 296.929
75.1054 70.4922 320.386
12.6321 -39.911 307.987
-68.2204 1.42187 277.055
56.4286 0.171758 293.059
-18.1674 19.0009 301.146
-72.7423 -0.985266 275.158
-20.5214 -39.5616 310.984
12.3909 -27.2173 308.743
-87.5495 25.3176 276.315
13.6817 43.9732 301.717
-18.9277 -41.7097 314.001
46.1782 70.2831 313.637
44.9679 56.2002 318.998
-44.719 -3.13105 286.078
81.0075 -82.5472 315.239
44.4275 99.7939 314.471
41.3287 -88.5308 307.263
-6.43893 45.3343 334.856
3.19065 9.00481 306.152
-15.8769 19.3934 302.262
-47.2397 -15.729 286.639
-64.0219 -56.5264 313.541
67.8867 70.3527 318.752
104.494 100.586 310.629
-85.99 51.6226 302.361
-12.0995 43.7949 327.923
29.2183 -27.5068 291.146
-68.8063 -57.8632 313.605
39.6497 36.7063 300.278
-59.4239 -56.7232 316.802
18.6724 31.0936 292.232
-64.3548 -57.192 314.826
74.0377 -116.276 293.273
25.4187 36.5711 296.903
18.6514 47.8395 303.91
125.306 110.822 285.414
-47.6381 -19.9096 287.666
-21.8294 -34.6311 306.062
-48.0601 -58.7314 332.103
58.5537 110.159 302.695
134.38 100.37 302.591
-50.8049 46.0207 311.265
64.0878 -120.592 304.022
83.0608 -110.265 298.99
16.0712 24.1479 291.955
78.6681 83.2306 313.809
51.4691 -44.0198 305.002
-66.1882 -23.2201 281.404
-79.5421 -61.7989 317.07
35.4993 58.6854 317.859
-19.303 26.0861 304.616
-1.55491 65.4076 366.212
32.7337 -14.7892 288.543
-2.88125 35.8148 320.348
47.6445 33.9093 300.467
16.6102 19.2208 289.763
12.8232 51.4132 306.609
56.6847 110.794 306.156
-27.7899 48.6737 330.081
-81.8706 43.9669 293.397
-65.2577 25.9952 285.644
53.6783 -68.8366 317.184
30.3834 -67.0062 313.336
-49.5498 -7.94674 284.443
58.922 57.7985 323.939
0.774438 60.7199 356.383
-2.45409 -39.9795 319.786
47.814 82.798 306.733
14.1618 -10.1816 300.829
12.0379 -51.692 310.772
-65.1493 -59.4354 320.266
67.4334 -115.038 293.427
-74.6284 57.3347 325.823
-79.3942 43.7455 294.283
-13.6099 -39.7519 314.35
70.3313 -83.4989 312.193
-14.1305 5.23404 298.616
-8.66381 -51.2307 336.31
91.2676 87.9046 314.833
3.00645 -35.8064 317.964
140.534 -104.908 302.46
-73.0503 -57.8265 310.921
116.402 109.26 286.952
61.0634 32.6932 309.739
59.2563 18.6431 298.187
143.8 113.051 294.892
-9.10907 -51.8715 338.114
27.7248 11.8278 287.662
-0.674639 -67.0468 365.294
-74.4739 -3.19309 274.46
91.4954 -100.696 306.717
130.542 -105.84 291.183
11.9452 -34.986 310.81
82.3305 90.6926 310.331
115.262 99.0348 320.402
42.9899 95.8684 313.152
-68.7152 46.1035 302.425
-37.3726 -45.1348 309.264
-37.9214 -34.9167 299.341
5.22493 48.429 340.492
45.9002 95.2006 307.287
46.8459 -55.9324 314.139
31.1041 -80.6985 322.183
5.18838 65.3711 337.466
-84.3784 11.7925 272.386
27.8264 -4.81002 286.351
48.6253 17.3133 293.839
127.947 -100.079 302.133
-94.0475 57.867 311.953
-75.4451 -23.0783 277.627
-65.7434 -0.502352 277.9
15.5862 51.7781 307.13
60.1178 -38.9907 309.171
-86.2127 58.5015 320.526
62.7057 -36.9235 312.435
73.8746 100.193 302.786
45.3922 61.2067 318.739
-62.1883 -57.9657 318.158
60.889 71.4898 316.428
53.7276 91.8365 302.871
6.27973 56.0763 336.115
-97.0465 -66.2514 320.055
101.379 115.293 292.417
9.57124 65.8351 331.165
99.6807 98.1521 310.105
-71.0818 43.9129 298.368
3.26184 -69.1594 348.558
-73.4368 -27.7201 280.348
117.648 96.9127 310.854
4.10662 57.8467 342.239
-91.3728 56.8453 310.807
27.1462 -57.4656 311.064
113.383 139.966 336.019
-52.9257 21.2196 288.184
-34.1631 -54.36 327.423
70.7416 -51.3687 331.965
71.4482 61.0274 325.032
110.276 99.0687 311.698
29.5271 21.8794 290.813
-26.7982 -47.8888 318.397
138.931 -103.02 309.51
121.386 -99.1078 308.26
51.6278 -55.9546 315.315
-58.4521 25.3048 288.032
-43.665 -51.5581 315.477
71.7642 -124.245 299.103
69.9648 68.7059 320.206
0.369241 -39.4171 320.472
67.117 -95.1369 304.426
12.5344 48.578 306.51
-85.9465 26.3323 277.374
-50.4296 16.6128 287.257
52.5245 -65.6037 318.868
78.9149 -69.2988 323.776
-40.3716 -7.7892 288.012
-58.6339 55.4955 332.607
-6.66241 46.8114 339.252
19.0985 67.4319 333.086
146.178 -116.591 293.262
61.2479 21.7558 302.984
-73.4628 -58.8383 312.936
65.7415 73.3718 316.484
43.0687 -31.402 295.989
108.876 101.087 302.261
58.8049 -71.0202 317.053
-52.2033 -48.6695 306.594
84.5749 -100.775 305.066
-14.6724 -10.8289 298.485
29.3405 38.0905 298.767
48.7892 -82.4797 307.82
63.5025 73.2298 316.035
-44.6836 27.0004 294.657
39.694 -86.3423 308.593
-58.5507 -5.43279 280.738
67.4752 -34.0995 319.278
-20.7509 30.3483 307.124
-26.8392 31.0675 305.101
36.0861 -80.9038 311.303
-45.3492 14.1536 288.453
-43.3692 -48.6902 311.021
52.548 -79.1194 310.718
38.8329 -64.1064 316.601
46.7451 9.57823 291.713
20.6846 -10.0216 285.045
48.6072 -51.0243 309.775
56.7957 105.073 299.609
-22.9742 30.5894 306.369
101.927 -106.955 305.355
-84.992 19.5836 274.638
41.3312 -79.3167 308.001
-27.952 -24.5549 297.416
-84.2769 -13.0728 271.489
13.8189 26.5207 301.506
-8.91655 13.8363 302.783
2.94726 70.1958 346.917
49.0129 -55.8435 314.564
13.5045 -12.6885 303.685
3.76961 36.4679 324.278
57.0224 -74.4303 314.583
8.94744 68.4751 333.536
-78.9571 24.1034 279.071
-54.5698 8.91738 283.431
64.9457 49.859 329.996
61.1341 -2.62621 297.059
82.8633 96.6974 306.958
-86.9113 30.0928 279.16
-54.2601 6.75487 283.152
-27.2817 33.5423 307.058
-76.3567 56.5951 320.865
90.1156 109.264 301.358
68.5616 9.92233 310.682
25.9711 -36.9782 294.632
10.8433 48.9638 313.71
63.6956 12.1543 303.311
-55.8907 -32.358 290.031
115.014 -100.803 314.154
50.736 -107.708 309.155
66.0014 14.5374 307.904
13.1363 31.4002 304.311
-71.5075 55.9036 322.11
14.9136 31.7056 296.728
-47.88 34.2536 298.712
68.1266 -52.9982 330.086
-83.154 -54.0844 298.635
-33.551 25.8462 298.553
128.653 -101.803 297.312
67.4186 -100.768 301.099
69.3911 87.7691 308.961
55.0012 -110.122 304.984
16.4236 31.4692 292.099
33.3877 60.6225 316.229
-60.2763 46.2429 306.79
62.5714 -12.2598 300.306
50.4416 28.8067 298.504
65.5898 -66.8724 321.127
37.6693 -81.4398 308.509
14.1206 -20.2549 301.221
-83.4911 -35.2431 280.248
128.931 97.483 313.908
67.9843 -12.2094 309.14
-82.433 -12.9251 272.185
43.0869 63.3169 316.962
-26.6921 4.37699 293.57
62.0907 17.2889 302.419
-21.0744 -28.2444 302.122
52.0762 -91.492 303.143
29.6716 -76.2949 321.94
-66.4061 -58.3794 316.411
75.022 71.381 319.848
-25.3592 -27.4278 299.894
78.5477 -75.8844 318.69
-60.4869 -35.6658 290.233
-47.5902 -5.51157 285.029
-17.7205 46.7961 331.468
37.7432 -87.8124 313.884
54.1945 112.275 311.475
70.2816 -100.865 301.702
130.814 112.167 285.878
24.5424 -27.681 290.103
-27.5592 -27.2838 298.905
-25.3432 -25.46 298.899
-52.6201 -25.1342 287.635
74.7592 -100.822 302.766
35.0607 2.39917 288.166
60.9789 38.5854 315.216
-62.8111 -61.3488 330.678
90.4722 86.2249 315.008
35.1424 34.7299 298.017
-26.1663 0.0290416 293.369
-9.63533 18.62 304.404
62.6935 2.01326 299.759
13.7283 -54.3968 305.65
71.6155 126.331 305.448
140.188 -103.885 306.574
13.1286 -34.506 305.755
71.9581 123.93 302.008
45.5245 23.2989 295.062
125.047 -99.4605 303.855
45.7589 -59.4932 317.921
16.1256 56.2379 312.476
109.59 -107.964 293.222
80.48 -120.972 291.931
